# .PCD v0.7 - Point Cloud Data file format
VERSION 0.7
FIELDS x y z
SIZE 4 4 4
TYPE F F F
COUNT 1 1 1
WIDTH 2751
HEIGHT 1
VIEWPOINT 0 0 0 1 0 0 0
POINTS 2751
DATA ascii
34.8 8.4 -15.928
35.0 8.4 -16.051
35.2 8.4 -16.162
35.4 8.4 -16.252
35.6 8.4 -16.363
43.8 8.4 -37.72
44.0 8.4 -37.738
44.2 8.4 -37.798
44.4 8.4 -37.825
44.6 8.4 -37.744
44.8 8.4 -37.669
45.0 8.4 -37.612
45.2 8.4 -37.63
45.4 8.4 -37.729
45.6 8.4 -37.711
45.8 8.4 -37.696
46.0 8.4 -37.63
46.2 8.4 -37.543
46.4 8.4 -37.522
46.6 8.4 -37.585
46.8 8.4 -37.54
47.0 8.4 -37.543
47.2 8.4 -37.597
47.4 8.4 -37.621
47.6 8.4 -37.627
47.8 8.4 -37.678
48.0 8.4 -37.693
48.2 8.4 -37.549
6.6 8.6 -38.689
6.8 8.6 -38.677
7.0 8.6 -38.674
7.2 8.6 -38.71
7.4 8.6 -38.707
7.6 8.6 -38.707
9.6 8.6 -38.695
9.8 8.6 -38.668
10.0 8.6 -38.647
10.2 8.6 -38.653
10.4 8.6 -38.656
10.6 8.6 -38.629
10.8 8.6 -38.599
11.0 8.6 -38.578
11.2 8.6 -38.56
11.4 8.6 -38.56
11.6 8.6 -38.59
11.8 8.6 -38.623
12.0 8.6 -38.65
12.2 8.6 -38.668
12.4 8.6 -38.653
12.6 8.6 -38.647
12.8 8.6 -38.62
13.0 8.6 -38.599
13.2 8.6 -38.602
13.4 8.6 -38.605
13.6 8.6 -38.59
13.8 8.6 -38.596
14.0 8.6 -38.572
14.2 8.6 -38.536
14.4 8.6 -38.533
14.6 8.6 -38.515
14.8 8.6 -38.512
15.0 8.6 -38.5
15.2 8.6 -38.482
15.4 8.6 -38.464
15.6 8.6 -38.434
15.8 8.6 -38.422
16.0 8.6 -38.431
16.2 8.6 -38.437
16.4 8.6 -38.419
17.4 8.6 -21.448
18.2 8.6 -20.023
18.4 8.6 -19.666
18.6 8.6 -19.339
18.8 8.6 -19.066
19.0 8.6 -18.892
19.2 8.6 -18.643
19.4 8.6 -18.433
19.6 8.6 -18.223
19.8 8.6 -18.034
20.0 8.6 -17.863
20.2 8.6 -17.638
20.4 8.6 -17.431
20.6 8.6 -17.263
20.8 8.6 -17.107
21.0 8.6 -16.924
21.2 8.6 -16.771
21.4 8.6 -16.63
21.6 8.6 -16.492
21.8 8.6 -16.342
22.0 8.6 -16.216
22.2 8.6 -16.087
22.4 8.6 -15.955
22.6 8.6 -15.835
22.8 8.6 -15.73
23.0 8.6 -15.631
23.2 8.6 -15.523
23.4 8.6 -15.415
23.6 8.6 -15.316
23.8 8.6 -15.232
24.0 8.6 -15.151
24.2 8.6 -15.04
24.4 8.6 -14.962
24.6 8.6 -14.905
24.8 8.6 -14.848
25.0 8.6 -14.794
25.2 8.6 -14.734
25.4 8.6 -14.674
25.6 8.6 -14.62
25.8 8.6 -14.551
26.0 8.6 -14.527
26.2 8.6 -14.488
26.4 8.6 -14.428
26.6 8.6 -14.377
26.8 8.6 -14.347
27.0 8.6 -14.272
27.2 8.6 -14.209
27.4 8.6 -14.17
27.6 8.6 -14.176
27.8 8.6 -14.2
28.0 8.6 -14.215
28.2 8.6 -14.218
28.4 8.6 -14.17
28.6 8.6 -14.17
28.8 8.6 -14.167
29.0 8.6 -14.188
29.2 8.6 -14.188
29.4 8.6 -14.191
29.6 8.6 -14.23
29.8 8.6 -14.29
30.0 8.6 -14.296
30.2 8.6 -14.284
30.4 8.6 -14.323
30.6 8.6 -14.371
30.8 8.6 -14.431
31.0 8.6 -14.5
31.2 8.6 -14.554
31.4 8.6 -14.587
31.6 8.6 -14.641
31.8 8.6 -14.659
32.0 8.6 -14.728
32.2 8.6 -14.77
32.4 8.6 -14.818
32.6 8.6 -14.884
32.8 8.6 -14.968
33.0 8.6 -15.07
33.2 8.6 -15.121
33.4 8.6 -15.205
33.6 8.6 -15.295
33.8 8.6 -15.373
34.0 8.6 -15.439
34.2 8.6 -15.517
34.4 8.6 -15.628
34.6 8.6 -15.763
34.8 8.6 -15.889
35.0 8.6 -16.006
35.2 8.6 -16.126
35.4 8.6 -16.21
35.6 8.6 -16.357
43.8 8.6 -37.762
44.0 8.6 -37.735
44.2 8.6 -37.768
44.4 8.6 -37.768
44.6 8.6 -37.741
44.8 8.6 -37.591
45.0 8.6 -37.585
45.2 8.6 -37.633
45.4 8.6 -37.684
45.6 8.6 -37.696
45.8 8.6 -37.732
46.0 8.6 -37.72
46.2 8.6 -37.669
46.4 8.6 -37.621
46.6 8.6 -37.642
46.8 8.6 -37.606
47.0 8.6 -37.567
47.2 8.6 -37.552
47.4 8.6 -37.522
47.6 8.6 -37.63
47.8 8.6 -37.66
48.0 8.6 -37.591
48.2 8.6 -37.474
5.4 8.8 -38.725
8.4 8.8 -38.668
8.6 8.8 -38.692
9.6 8.8 -38.701
9.8 8.8 -38.668
10.0 8.8 -38.635
10.2 8.8 -38.614
10.4 8.8 -38.605
10.6 8.8 -38.548
10.8 8.8 -38.548
11.0 8.8 -38.572
11.2 8.8 -38.566
11.4 8.8 -38.569
11.6 8.8 -38.584
11.8 8.8 -38.599
12.0 8.8 -38.608
12.2 8.8 -38.635
12.4 8.8 -38.65
12.6 8.8 -38.641
12.8 8.8 -38.632
13.0 8.8 -38.617
13.2 8.8 -38.608
13.4 8.8 -38.623
13.6 8.8 -38.653
13.8 8.8 -38.62
14.0 8.8 -38.569
14.2 8.8 -38.518
14.4 8.8 -38.494
14.6 8.8 -38.473
14.8 8.8 -38.482
15.0 8.8 -38.491
15.2 8.8 -38.485
15.4 8.8 -38.467
15.6 8.8 -38.44
15.8 8.8 -38.431
16.0 8.8 -38.455
16.2 8.8 -38.464
16.4 8.8 -38.431
17.4 8.8 -21.361
18.2 8.8 -19.924
18.4 8.8 -19.582
18.6 8.8 -19.324
18.8 8.8 -19.102
19.0 8.8 -18.859
19.2 8.8 -18.625
19.4 8.8 -18.37
19.6 8.8 -18.163
19.8 8.8 -17.995
20.0 8.8 -17.812
20.2 8.8 -17.575
20.4 8.8 -17.416
20.6 8.8 -17.215
20.8 8.8 -17.041
21.0 8.8 -16.879
21.2 8.8 -16.735
21.4 8.8 -16.597
21.6 8.8 -16.453
21.8 8.8 -16.321
22.0 8.8 -16.186
22.2 8.8 -16.042
22.4 8.8 -15.913
22.6 8.8 -15.808
22.8 8.8 -15.7
23.0 8.8 -15.595
23.2 8.8 -15.511
23.4 8.8 -15.406
23.6 8.8 -15.301
23.8 8.8 -15.235
24.0 8.8 -15.178
24.2 8.8 -15.061
24.4 8.8 -14.962
24.6 8.8 -14.872
24.8 8.8 -14.794
25.0 8.8 -14.731
25.2 8.8 -14.674
25.4 8.8 -14.617
25.6 8.8 -14.548
25.8 8.8 -14.497
26.0 8.8 -14.47
26.2 8.8 -14.44
26.4 8.8 -14.356
26.6 8.8 -14.359
26.8 8.8 -14.314
27.0 8.8 -14.29
27.2 8.8 -14.257
27.4 8.8 -14.224
27.6 8.8 -14.206
27.8 8.8 -14.194
28.0 8.8 -14.179
28.2 8.8 -14.164
28.4 8.8 -14.134
28.6 8.8 -14.134
28.8 8.8 -14.158
29.0 8.8 -14.167
29.2 8.8 -14.176
29.4 8.8 -14.185
29.6 8.8 -14.218
29.8 8.8 -14.26
30.0 8.8 -14.284
30.2 8.8 -14.293
30.4 8.8 -14.311
30.6 8.8 -14.359
30.8 8.8 -14.425
31.0 8.8 -14.494
31.2 8.8 -14.533
31.4 8.8 -14.56
31.6 8.8 -14.614
31.8 8.8 -14.65
32.0 8.8 -14.719
32.2 8.8 -14.761
32.4 8.8 -14.809
32.6 8.8 -14.869
32.8 8.8 -14.926
33.0 8.8 -14.998
33.2 8.8 -15.061
33.4 8.8 -15.172
33.6 8.8 -15.259
33.8 8.8 -15.334
34.0 8.8 -15.415
34.2 8.8 -15.499
34.4 8.8 -15.586
34.6 8.8 -15.718
34.8 8.8 -15.856
35.0 8.8 -15.979
35.2 8.8 -16.09
35.4 8.8 -16.198
35.6 8.8 -16.33
43.8 8.8 -37.72
44.0 8.8 -37.666
44.2 8.8 -37.708
44.4 8.8 -37.702
44.6 8.8 -37.717
44.8 8.8 -37.612
45.0 8.8 -37.573
45.2 8.8 -37.66
45.4 8.8 -37.723
45.6 8.8 -37.696
45.8 8.8 -37.747
46.0 8.8 -37.765
46.2 8.8 -37.747
46.4 8.8 -37.759
46.6 8.8 -37.699
46.8 8.8 -37.696
47.0 8.8 -37.612
47.2 8.8 -37.522
47.4 8.8 -37.468
47.6 8.8 -37.573
47.8 8.8 -37.627
48.0 8.8 -37.537
48.2 8.8 -37.441
8.0 9.0 -38.695
8.2 9.0 -38.68
8.4 9.0 -38.641
8.6 9.0 -38.659
9.6 9.0 -38.686
9.8 9.0 -38.671
10.0 9.0 -38.644
10.2 9.0 -38.584
10.4 9.0 -38.566
10.6 9.0 -38.53
10.8 9.0 -38.521
11.0 9.0 -38.539
11.2 9.0 -38.578
11.4 9.0 -38.599
11.6 9.0 -38.575
11.8 9.0 -38.569
12.0 9.0 -38.566
12.2 9.0 -38.569
12.4 9.0 -38.623
12.6 9.0 -38.605
12.8 9.0 -38.596
13.0 9.0 -38.593
13.2 9.0 -38.599
13.4 9.0 -38.638
13.6 9.0 -38.65
13.8 9.0 -38.593
14.0 9.0 -38.539
14.2 9.0 -38.5
14.4 9.0 -38.467
14.6 9.0 -38.464
14.8 9.0 -38.47
15.0 9.0 -38.488
15.2 9.0 -38.5
15.4 9.0 -38.488
15.6 9.0 -38.488
15.8 9.0 -38.476
16.0 9.0 -38.479
16.2 9.0 -38.488
16.4 9.0 -38.479
17.4 9.0 -21.268
18.2 9.0 -19.81
18.4 9.0 -19.522
18.6 9.0 -19.267
18.8 9.0 -19.036
19.0 9.0 -18.817
19.2 9.0 -18.589
19.4 9.0 -18.388
19.6 9.0 -18.175
19.8 9.0 -17.953
20.0 9.0 -17.74
20.2 9.0 -17.524
20.4 9.0 -17.362
20.6 9.0 -17.167
20.8 9.0 -17.014
21.0 9.0 -16.846
21.2 9.0 -16.732
21.4 9.0 -16.567
21.6 9.0 -16.411
21.8 9.0 -16.282
22.0 9.0 -16.153
22.2 9.0 -16.009
22.4 9.0 -15.88
22.6 9.0 -15.787
22.8 9.0 -15.688
23.0 9.0 -15.577
23.2 9.0 -15.493
23.4 9.0 -15.388
23.6 9.0 -15.304
23.8 9.0 -15.232
24.0 9.0 -15.154
24.2 9.0 -15.052
24.4 9.0 -14.965
24.6 9.0 -14.869
24.8 9.0 -14.77
25.0 9.0 -14.722
25.2 9.0 -14.638
25.4 9.0 -14.539
25.6 9.0 -14.497
25.8 9.0 -14.479
26.0 9.0 -14.443
26.2 9.0 -14.392
26.4 9.0 -14.347
26.6 9.0 -14.308
26.8 9.0 -14.275
27.0 9.0 -14.239
27.2 9.0 -14.236
27.4 9.0 -14.227
27.6 9.0 -14.212
27.8 9.0 -14.188
28.0 9.0 -14.149
28.2 9.0 -14.134
28.4 9.0 -14.146
28.6 9.0 -14.131
28.8 9.0 -14.131
29.0 9.0 -14.173
29.2 9.0 -14.176
29.4 9.0 -14.185
29.6 9.0 -14.212
29.8 9.0 -14.227
30.0 9.0 -14.248
30.2 9.0 -14.266
30.4 9.0 -14.32
30.6 9.0 -14.35
30.8 9.0 -14.389
31.0 9.0 -14.446
31.2 9.0 -14.494
31.4 9.0 -14.524
31.6 9.0 -14.563
31.8 9.0 -14.608
32.0 9.0 -14.68
32.2 9.0 -14.737
32.4 9.0 -14.779
32.6 9.0 -14.818
32.8 9.0 -14.881
33.0 9.0 -14.974
33.2 9.0 -15.061
33.4 9.0 -15.16
33.6 9.0 -15.244
33.8 9.0 -15.319
34.0 9.0 -15.388
34.2 9.0 -15.484
34.4 9.0 -15.547
34.6 9.0 -15.664
34.8 9.0 -15.811
35.0 9.0 -15.949
35.2 9.0 -16.066
35.4 9.0 -16.177
35.6 9.0 -16.288
43.8 9.0 -37.711
44.0 9.0 -37.633
44.2 9.0 -37.633
44.4 9.0 -37.639
44.6 9.0 -37.702
44.8 9.0 -37.645
45.0 9.0 -37.591
45.2 9.0 -37.651
45.4 9.0 -37.732
45.6 9.0 -37.735
45.8 9.0 -37.765
46.0 9.0 -37.786
46.2 9.0 -37.789
46.4 9.0 -37.771
46.6 9.0 -37.741
46.8 9.0 -37.711
47.0 9.0 -37.606
47.2 9.0 -37.495
47.4 9.0 -37.447
47.6 9.0 -37.579
47.8 9.0 -37.627
48.0 9.0 -37.519
48.2 9.0 -37.414
7.6 9.2 -38.716
7.8 9.2 -38.692
8.0 9.2 -38.683
8.2 9.2 -38.68
8.4 9.2 -38.647
8.6 9.2 -38.635
8.8 9.2 -38.641
9.0 9.2 -38.668
9.2 9.2 -38.692
9.4 9.2 -38.668
9.6 9.2 -38.659
9.8 9.2 -38.662
10.0 9.2 -38.653
10.2 9.2 -38.599
10.4 9.2 -38.548
10.6 9.2 -38.539
10.8 9.2 -38.542
11.0 9.2 -38.566
11.2 9.2 -38.602
11.4 9.2 -38.617
11.6 9.2 -38.563
11.8 9.2 -38.536
12.0 9.2 -38.518
12.2 9.2 -38.506
12.4 9.2 -38.569
12.6 9.2 -38.572
12.8 9.2 -38.569
13.0 9.2 -38.572
13.2 9.2 -38.587
13.4 9.2 -38.614
13.6 9.2 -38.584
13.8 9.2 -38.548
14.0 9.2 -38.524
14.2 9.2 -38.515
14.4 9.2 -38.497
14.6 9.2 -38.503
14.8 9.2 -38.482
15.0 9.2 -38.491
15.2 9.2 -38.512
15.4 9.2 -38.515
15.6 9.2 -38.53
15.8 9.2 -38.518
16.0 9.2 -38.509
16.2 9.2 -38.512
16.4 9.2 -38.518
16.6 9.2 -38.464
17.4 9.2 -21.211
18.2 9.2 -19.735
18.4 9.2 -19.519
18.6 9.2 -19.216
18.8 9.2 -18.979
19.0 9.2 -18.784
19.2 9.2 -18.541
19.4 9.2 -18.346
19.6 9.2 -18.121
19.8 9.2 -17.905
20.0 9.2 -17.701
20.2 9.2 -17.485
20.4 9.2 -17.347
20.6 9.2 -17.161
20.8 9.2 -17.005
21.0 9.2 -16.828
21.2 9.2 -16.705
21.4 9.2 -16.543
21.6 9.2 -16.375
21.8 9.2 -16.24
22.0 9.2 -16.132
22.2 9.2 -16.009
22.4 9.2 -15.886
22.6 9.2 -15.778
22.8 9.2 -15.667
23.0 9.2 -15.538
23.2 9.2 -15.448
23.4 9.2 -15.367
23.6 9.2 -15.286
23.8 9.2 -15.187
24.0 9.2 -15.118
24.2 9.2 -15.055
24.4 9.2 -14.962
24.6 9.2 -14.869
24.8 9.2 -14.746
25.0 9.2 -14.632
25.2 9.2 -14.572
25.4 9.2 -14.536
25.6 9.2 -14.497
25.8 9.2 -14.458
26.0 9.2 -14.419
26.2 9.2 -14.356
26.4 9.2 -14.308
26.6 9.2 -14.272
26.8 9.2 -14.245
27.0 9.2 -14.218
27.2 9.2 -14.2
27.4 9.2 -14.179
27.6 9.2 -14.146
27.8 9.2 -14.116
28.0 9.2 -14.11
28.2 9.2 -14.122
28.4 9.2 -14.11
28.6 9.2 -14.077
28.8 9.2 -14.092
29.0 9.2 -14.134
29.2 9.2 -14.158
29.4 9.2 -14.176
29.6 9.2 -14.188
29.8 9.2 -14.188
30.0 9.2 -14.2
30.2 9.2 -14.251
30.4 9.2 -14.278
30.6 9.2 -14.305
30.8 9.2 -14.332
31.0 9.2 -14.389
31.2 9.2 -14.449
31.4 9.2 -14.494
31.6 9.2 -14.551
31.8 9.2 -14.614
32.0 9.2 -14.65
32.2 9.2 -14.689
32.4 9.2 -14.752
32.6 9.2 -14.818
32.8 9.2 -14.872
33.0 9.2 -14.947
33.2 9.2 -15.046
33.4 9.2 -15.118
33.6 9.2 -15.187
33.8 9.2 -15.271
34.0 9.2 -15.37
34.2 9.2 -15.469
34.4 9.2 -15.544
34.6 9.2 -15.646
34.8 9.2 -15.787
35.0 9.2 -15.925
35.2 9.2 -16.027
35.4 9.2 -16.126
35.6 9.2 -16.243
43.8 9.2 -37.747
44.0 9.2 -37.621
44.2 9.2 -37.618
44.4 9.2 -37.663
44.6 9.2 -37.69
44.8 9.2 -37.663
45.0 9.2 -37.612
45.2 9.2 -37.606
45.4 9.2 -37.675
45.6 9.2 -37.75
45.8 9.2 -37.771
46.0 9.2 -37.783
46.2 9.2 -37.786
46.4 9.2 -37.696
46.6 9.2 -37.72
46.8 9.2 -37.678
47.0 9.2 -37.588
47.2 9.2 -37.483
47.4 9.2 -37.435
47.6 9.2 -37.627
47.8 9.2 -37.597
48.0 9.2 -37.477
48.2 9.2 -37.369
5.4 9.4 -38.704
5.6 9.4 -38.707
5.8 9.4 -38.734
7.6 9.4 -38.695
7.8 9.4 -38.656
8.0 9.4 -38.653
8.2 9.4 -38.674
8.4 9.4 -38.641
8.6 9.4 -38.635
8.8 9.4 -38.635
9.0 9.4 -38.632
9.2 9.4 -38.656
9.4 9.4 -38.647
9.6 9.4 -38.641
9.8 9.4 -38.647
10.0 9.4 -38.665
10.2 9.4 -38.647
10.4 9.4 -38.587
10.6 9.4 -38.575
10.8 9.4 -38.602
11.0 9.4 -38.629
11.2 9.4 -38.62
11.4 9.4 -38.602
11.6 9.4 -38.539
11.8 9.4 -38.506
12.0 9.4 -38.491
12.2 9.4 -38.494
12.4 9.4 -38.569
12.6 9.4 -38.56
12.8 9.4 -38.557
13.0 9.4 -38.548
13.2 9.4 -38.533
13.4 9.4 -38.539
13.6 9.4 -38.524
13.8 9.4 -38.527
14.0 9.4 -38.539
14.2 9.4 -38.557
14.4 9.4 -38.566
14.6 9.4 -38.53
14.8 9.4 -38.497
15.0 9.4 -38.497
15.2 9.4 -38.509
15.4 9.4 -38.521
15.6 9.4 -38.53
15.8 9.4 -38.524
16.0 9.4 -38.524
16.2 9.4 -38.521
16.4 9.4 -38.506
17.4 9.4 -21.154
18.2 9.4 -19.672
18.4 9.4 -19.462
18.6 9.4 -19.243
18.8 9.4 -19.024
19.0 9.4 -18.778
19.2 9.4 -18.541
19.4 9.4 -18.319
19.6 9.4 -18.076
19.8 9.4 -17.848
20.0 9.4 -17.662
20.2 9.4 -17.461
20.4 9.4 -17.308
20.6 9.4 -17.155
20.8 9.4 -16.954
21.0 9.4 -16.81
21.2 9.4 -16.672
21.4 9.4 -16.531
21.6 9.4 -16.378
21.8 9.4 -16.246
22.0 9.4 -16.132
22.2 9.4 -16.015
22.4 9.4 -15.895
22.6 9.4 -15.769
22.8 9.4 -15.652
23.0 9.4 -15.535
23.2 9.4 -15.433
23.4 9.4 -15.349
23.6 9.4 -15.253
23.8 9.4 -15.178
24.0 9.4 -15.076
24.2 9.4 -15.01
24.4 9.4 -14.932
24.6 9.4 -14.827
24.8 9.4 -14.734
25.0 9.4 -14.647
25.2 9.4 -14.593
25.4 9.4 -14.539
25.6 9.4 -14.476
25.8 9.4 -14.41
26.0 9.4 -14.356
26.2 9.4 -14.323
26.4 9.4 -14.248
26.6 9.4 -14.221
26.8 9.4 -14.167
27.0 9.4 -14.137
27.2 9.4 -14.122
27.4 9.4 -14.107
27.6 9.4 -14.092
27.8 9.4 -14.083
28.0 9.4 -14.068
28.2 9.4 -14.047
28.4 9.4 -14.047
28.6 9.4 -14.059
28.8 9.4 -14.05
29.0 9.4 -14.089
29.2 9.4 -14.131
29.4 9.4 -14.146
29.6 9.4 -14.146
29.8 9.4 -14.152
30.0 9.4 -14.188
30.2 9.4 -14.266
30.4 9.4 -14.266
30.6 9.4 -14.275
30.8 9.4 -14.293
31.0 9.4 -14.338
31.2 9.4 -14.383
31.4 9.4 -14.419
31.6 9.4 -14.47
31.8 9.4 -14.551
32.0 9.4 -14.602
32.2 9.4 -14.653
32.4 9.4 -14.725
32.6 9.4 -14.8
32.8 9.4 -14.863
33.0 9.4 -14.929
33.2 9.4 -15.022
33.4 9.4 -15.085
33.6 9.4 -15.172
33.8 9.4 -15.253
34.0 9.4 -15.337
34.2 9.4 -15.439
34.4 9.4 -15.505
34.6 9.4 -15.61
34.8 9.4 -15.721
35.0 9.4 -15.844
35.2 9.4 -15.967
35.4 9.4 -16.03
35.6 9.4 -16.15
43.8 9.4 -37.741
44.0 9.4 -37.6
44.2 9.4 -37.663
44.4 9.4 -37.705
44.6 9.4 -37.678
44.8 9.4 -37.669
45.0 9.4 -37.648
45.2 9.4 -37.609
45.4 9.4 -37.678
45.6 9.4 -37.744
45.8 9.4 -37.741
46.0 9.4 -37.732
46.2 9.4 -37.717
46.4 9.4 -37.621
46.6 9.4 -37.654
46.8 9.4 -37.636
47.0 9.4 -37.564
47.2 9.4 -37.492
47.4 9.4 -37.483
47.6 9.4 -37.684
47.8 9.4 -37.636
48.0 9.4 -37.474
48.2 9.4 -37.333
6.4 9.6 -38.722
6.6 9.6 -38.701
6.8 9.6 -38.689
7.6 9.6 -38.704
7.8 9.6 -38.674
8.0 9.6 -38.662
8.2 9.6 -38.671
8.4 9.6 -38.665
8.6 9.6 -38.653
8.8 9.6 -38.644
9.0 9.6 -38.638
9.2 9.6 -38.623
9.4 9.6 -38.644
9.6 9.6 -38.635
9.8 9.6 -38.635
10.0 9.6 -38.653
10.2 9.6 -38.665
10.4 9.6 -38.65
10.6 9.6 -38.647
10.8 9.6 -38.665
11.0 9.6 -38.668
11.2 9.6 -38.617
11.4 9.6 -38.587
11.6 9.6 -38.53
11.8 9.6 -38.497
12.0 9.6 -38.503
12.2 9.6 -38.536
12.4 9.6 -38.581
12.6 9.6 -38.578
12.8 9.6 -38.557
13.0 9.6 -38.521
13.2 9.6 -38.488
13.4 9.6 -38.482
13.6 9.6 -38.482
13.8 9.6 -38.53
14.0 9.6 -38.563
14.2 9.6 -38.59
14.4 9.6 -38.611
14.6 9.6 -38.527
14.8 9.6 -38.524
15.0 9.6 -38.518
15.2 9.6 -38.515
15.4 9.6 -38.521
15.6 9.6 -38.521
15.8 9.6 -38.494
16.0 9.6 -38.485
16.2 9.6 -38.479
16.4 9.6 -38.458
17.4 9.6 -21.148
18.0 9.6 -19.951
18.2 9.6 -19.645
18.4 9.6 -19.411
18.6 9.6 -19.174
18.8 9.6 -18.931
19.0 9.6 -18.712
19.2 9.6 -18.469
19.4 9.6 -18.247
19.6 9.6 -18.046
19.8 9.6 -17.839
20.0 9.6 -17.62
20.2 9.6 -17.44
20.4 9.6 -17.278
20.6 9.6 -17.113
20.8 9.6 -16.933
21.0 9.6 -16.774
21.2 9.6 -16.648
21.4 9.6 -16.507
21.6 9.6 -16.366
21.8 9.6 -16.237
22.0 9.6 -16.102
22.2 9.6 -15.985
22.4 9.6 -15.868
22.6 9.6 -15.736
22.8 9.6 -15.628
23.0 9.6 -15.55
23.2 9.6 -15.451
23.4 9.6 -15.328
23.6 9.6 -15.22
23.8 9.6 -15.148
24.0 9.6 -15.055
24.2 9.6 -14.947
24.4 9.6 -14.854
24.6 9.6 -14.779
24.8 9.6 -14.71
25.0 9.6 -14.641
25.2 9.6 -14.575
25.4 9.6 -14.521
25.6 9.6 -14.455
25.8 9.6 -14.362
26.0 9.6 -14.296
26.2 9.6 -14.269
26.4 9.6 -14.2
26.6 9.6 -14.158
26.8 9.6 -14.134
27.0 9.6 -14.11
27.2 9.6 -14.098
27.4 9.6 -14.074
27.6 9.6 -14.056
27.8 9.6 -14.047
28.0 9.6 -14.047
28.2 9.6 -14.047
28.4 9.6 -14.041
28.6 9.6 -14.056
28.8 9.6 -14.062
29.0 9.6 -14.092
29.2 9.6 -14.107
29.4 9.6 -14.107
29.6 9.6 -14.128
29.8 9.6 -14.167
30.0 9.6 -14.17
30.2 9.6 -14.23
30.4 9.6 -14.236
30.6 9.6 -14.242
30.8 9.6 -14.278
31.0 9.6 -14.311
31.2 9.6 -14.332
31.4 9.6 -14.371
31.6 9.6 -14.455
31.8 9.6 -14.521
32.0 9.6 -14.584
32.2 9.6 -14.635
32.4 9.6 -14.695
32.6 9.6 -14.755
32.8 9.6 -14.812
33.0 9.6 -14.887
33.2 9.6 -14.98
33.4 9.6 -15.043
33.6 9.6 -15.148
33.8 9.6 -15.25
34.0 9.6 -15.34
34.2 9.6 -15.427
34.4 9.6 -15.52
34.6 9.6 -15.613
34.8 9.6 -15.727
35.0 9.6 -15.844
35.2 9.6 -15.94
35.4 9.6 -15.994
35.6 9.6 -16.093
43.8 9.6 -37.756
44.0 9.6 -37.642
44.2 9.6 -37.654
44.4 9.6 -37.735
44.6 9.6 -37.675
44.8 9.6 -37.69
45.0 9.6 -37.711
45.2 9.6 -37.696
45.4 9.6 -37.762
45.6 9.6 -37.738
45.8 9.6 -37.681
46.0 9.6 -37.627
46.2 9.6 -37.585
46.4 9.6 -37.573
46.6 9.6 -37.609
46.8 9.6 -37.609
47.0 9.6 -37.54
47.2 9.6 -37.489
47.4 9.6 -37.534
47.6 9.6 -37.69
47.8 9.6 -37.696
48.0 9.6 -37.54
6.4 9.8 -38.692
6.6 9.8 -38.674
6.8 9.8 -38.665
7.0 9.8 -38.677
7.2 9.8 -38.683
7.4 9.8 -38.692
7.6 9.8 -38.689
7.8 9.8 -38.677
8.0 9.8 -38.668
8.2 9.8 -38.656
8.4 9.8 -38.656
8.6 9.8 -38.656
8.8 9.8 -38.65
9.0 9.8 -38.623
9.2 9.8 -38.569
9.4 9.8 -38.617
9.6 9.8 -38.659
9.8 9.8 -38.665
10.0 9.8 -38.641
10.2 9.8 -38.641
10.4 9.8 -38.665
10.6 9.8 -38.698
10.8 9.8 -38.698
11.0 9.8 -38.662
11.2 9.8 -38.617
11.4 9.8 -38.584
11.6 9.8 -38.557
11.8 9.8 -38.527
12.0 9.8 -38.53
12.2 9.8 -38.572
12.4 9.8 -38.563
12.6 9.8 -38.596
12.8 9.8 -38.59
13.0 9.8 -38.548
13.2 9.8 -38.497
13.4 9.8 -38.476
13.6 9.8 -38.476
13.8 9.8 -38.515
14.0 9.8 -38.569
14.2 9.8 -38.605
14.4 9.8 -38.59
14.6 9.8 -38.575
14.8 9.8 -38.539
15.0 9.8 -38.515
15.2 9.8 -38.5
15.4 9.8 -38.491
15.6 9.8 -38.485
15.8 9.8 -38.458
16.0 9.8 -38.437
16.2 9.8 -38.443
16.4 9.8 -38.473
17.8 9.8 -20.359
18.0 9.8 -19.999
18.2 9.8 -19.687
18.4 9.8 -19.423
18.6 9.8 -19.168
18.8 9.8 -18.931
19.0 9.8 -18.694
19.2 9.8 -18.442
19.4 9.8 -18.226
19.6 9.8 -18.055
19.8 9.8 -17.83
20.0 9.8 -17.608
20.2 9.8 -17.425
20.4 9.8 -17.251
20.6 9.8 -17.08
20.8 9.8 -16.939
21.0 9.8 -16.765
21.2 9.8 -16.609
21.4 9.8 -16.462
21.6 9.8 -16.315
21.8 9.8 -16.174
22.0 9.8 -16.066
22.2 9.8 -15.964
22.4 9.8 -15.847
22.6 9.8 -15.712
22.8 9.8 -15.601
23.0 9.8 -15.517
23.2 9.8 -15.43
23.4 9.8 -15.346
23.6 9.8 -15.226
23.8 9.8 -15.133
24.0 9.8 -15.016
24.2 9.8 -14.92
24.4 9.8 -14.833
24.6 9.8 -14.752
24.8 9.8 -14.692
25.0 9.8 -14.626
25.2 9.8 -14.569
25.4 9.8 -14.506
25.6 9.8 -14.449
25.8 9.8 -14.386
26.0 9.8 -14.302
26.2 9.8 -14.248
26.4 9.8 -14.173
26.6 9.8 -14.119
26.8 9.8 -14.11
27.0 9.8 -14.098
27.2 9.8 -14.08
27.4 9.8 -14.074
27.6 9.8 -14.062
27.8 9.8 -14.041
28.0 9.8 -14.029
28.2 9.8 -14.035
28.4 9.8 -14.008
28.6 9.8 -14.032
28.8 9.8 -14.056
29.0 9.8 -14.077
29.2 9.8 -14.08
29.4 9.8 -14.083
29.6 9.8 -14.107
29.8 9.8 -14.125
30.0 9.8 -14.143
30.2 9.8 -14.179
30.4 9.8 -14.245
30.6 9.8 -14.284
30.8 9.8 -14.278
31.0 9.8 -14.29
31.2 9.8 -14.329
31.4 9.8 -14.374
31.6 9.8 -14.428
31.8 9.8 -14.506
32.0 9.8 -14.566
32.2 9.8 -14.608
32.4 9.8 -14.644
32.6 9.8 -14.719
32.8 9.8 -14.806
33.0 9.8 -14.884
33.2 9.8 -14.983
33.4 9.8 -15.049
33.6 9.8 -15.133
33.8 9.8 -15.229
34.0 9.8 -15.325
34.2 9.8 -15.415
34.4 9.8 -15.511
34.6 9.8 -15.598
34.8 9.8 -15.694
35.0 9.8 -15.793
35.2 9.8 -15.901
35.4 9.8 -16.036
35.6 9.8 -16.102
43.8 9.8 -37.735
44.0 9.8 -37.651
44.2 9.8 -37.627
44.4 9.8 -37.765
44.6 9.8 -37.687
44.8 9.8 -37.666
45.0 9.8 -37.675
45.2 9.8 -37.729
45.4 9.8 -37.678
45.6 9.8 -37.588
45.8 9.8 -37.582
46.0 9.8 -37.531
46.2 9.8 -37.513
46.4 9.8 -37.543
46.6 9.8 -37.591
46.8 9.8 -37.621
47.0 9.8 -37.537
47.2 9.8 -37.468
47.4 9.8 -37.453
47.6 9.8 -37.618
47.8 9.8 -37.642
48.0 9.8 -37.561
4.4 10.0 -38.707
7.0 10.0 -38.665
7.2 10.0 -38.647
7.4 10.0 -38.656
7.6 10.0 -38.671
7.8 10.0 -38.689
8.0 10.0 -38.701
8.2 10.0 -38.65
8.4 10.0 -38.638
8.6 10.0 -38.638
8.8 10.0 -38.635
9.0 10.0 -38.617
9.2 10.0 -38.575
9.4 10.0 -38.593
9.6 10.0 -38.62
9.8 10.0 -38.638
10.0 10.0 -38.65
10.2 10.0 -38.65
10.4 10.0 -38.659
11.0 10.0 -38.68
11.2 10.0 -38.608
11.4 10.0 -38.551
11.6 10.0 -38.548
11.8 10.0 -38.545
12.0 10.0 -38.545
12.2 10.0 -38.56
12.4 10.0 -38.56
12.6 10.0 -38.584
12.8 10.0 -38.593
13.0 10.0 -38.557
13.2 10.0 -38.515
13.4 10.0 -38.518
13.6 10.0 -38.506
13.8 10.0 -38.521
14.0 10.0 -38.548
14.2 10.0 -38.566
14.4 10.0 -38.575
14.6 10.0 -38.584
14.8 10.0 -38.563
15.0 10.0 -38.542
15.2 10.0 -38.512
15.4 10.0 -38.485
15.6 10.0 -38.458
15.8 10.0 -38.416
16.0 10.0 -38.425
16.2 10.0 -38.455
16.4 10.0 -38.494
18.2 10.0 -19.645
18.4 10.0 -19.399
18.6 10.0 -19.174
18.8 10.0 -18.91
19.0 10.0 -18.67
19.2 10.0 -18.424
19.4 10.0 -18.181
19.6 10.0 -17.971
19.8 10.0 -17.77
20.0 10.0 -17.605
20.2 10.0 -17.401
20.4 10.0 -17.23
20.6 10.0 -17.056
20.8 10.0 -16.933
21.0 10.0 -16.762
21.2 10.0 -16.585
21.4 10.0 -16.441
21.6 10.0 -16.279
21.8 10.0 -16.15
22.0 10.0 -16.039
22.2 10.0 -15.928
22.4 10.0 -15.82
22.6 10.0 -15.691
22.8 10.0 -15.559
23.0 10.0 -15.451
23.2 10.0 -15.361
23.4 10.0 -15.304
23.6 10.0 -15.187
23.8 10.0 -15.076
24.0 10.0 -15.004
24.2 10.0 -14.917
24.4 10.0 -14.806
24.6 10.0 -14.746
24.8 10.0 -14.68
25.0 10.0 -14.611
25.2 10.0 -14.554
25.4 10.0 -14.497
25.6 10.0 -14.452
25.8 10.0 -14.404
26.0 10.0 -14.311
26.2 10.0 -14.218
26.4 10.0 -14.173
26.6 10.0 -14.122
26.8 10.0 -14.083
27.0 10.0 -14.062
27.2 10.0 -14.053
27.4 10.0 -14.047
27.6 10.0 -14.026
27.8 10.0 -14.005
28.0 10.0 -14.005
28.2 10.0 -14.02
28.4 10.0 -14.032
28.6 10.0 -14.047
28.8 10.0 -14.068
29.0 10.0 -14.062
29.2 10.0 -14.065
29.4 10.0 -14.089
29.6 10.0 -14.098
29.8 10.0 -14.089
30.0 10.0 -14.119
30.2 10.0 -14.164
30.4 10.0 -14.23
30.6 10.0 -14.293
30.8 10.0 -14.302
31.0 10.0 -14.296
31.2 10.0 -14.332
31.4 10.0 -14.389
31.6 10.0 -14.428
31.8 10.0 -14.503
32.0 10.0 -14.569
32.2 10.0 -14.62
32.4 10.0 -14.659
32.6 10.0 -14.716
32.8 10.0 -14.788
33.0 10.0 -14.851
33.2 10.0 -14.974
33.4 10.0 -15.031
33.6 10.0 -15.13
33.8 10.0 -15.223
34.0 10.0 -15.304
34.2 10.0 -15.409
34.4 10.0 -15.505
34.6 10.0 -15.583
34.8 10.0 -15.688
35.0 10.0 -15.787
35.2 10.0 -15.88
35.4 10.0 -16.021
35.6 10.0 -16.102
43.8 10.0 -37.702
44.0 10.0 -37.609
44.2 10.0 -37.618
44.4 10.0 -37.717
44.6 10.0 -37.663
44.8 10.0 -37.648
45.0 10.0 -37.639
45.2 10.0 -37.633
45.4 10.0 -37.654
45.6 10.0 -37.504
45.8 10.0 -37.519
46.0 10.0 -37.534
46.2 10.0 -37.495
46.4 10.0 -37.498
46.6 10.0 -37.522
46.8 10.0 -37.597
47.0 10.0 -37.474
47.2 10.0 -37.378
47.4 10.0 -37.435
47.6 10.0 -37.543
47.8 10.0 -37.525
48.0 10.0 -37.495
48.2 10.0 -37.414
5.4 10.2 -38.728
7.0 10.2 -38.695
7.2 10.2 -38.65
7.4 10.2 -38.656
7.6 10.2 -38.689
7.8 10.2 -38.701
8.0 10.2 -38.677
8.2 10.2 -38.689
8.4 10.2 -38.656
8.6 10.2 -38.647
8.8 10.2 -38.656
9.0 10.2 -38.65
9.2 10.2 -38.638
9.4 10.2 -38.635
9.6 10.2 -38.614
9.8 10.2 -38.614
10.0 10.2 -38.632
10.2 10.2 -38.623
10.4 10.2 -38.704
11.0 10.2 -38.671
11.2 10.2 -38.605
11.4 10.2 -38.56
11.6 10.2 -38.53
11.8 10.2 -38.524
12.0 10.2 -38.539
12.2 10.2 -38.56
12.4 10.2 -38.572
12.6 10.2 -38.584
12.8 10.2 -38.569
13.0 10.2 -38.56
13.2 10.2 -38.572
13.4 10.2 -38.566
13.6 10.2 -38.512
13.8 10.2 -38.512
14.0 10.2 -38.512
14.2 10.2 -38.506
14.4 10.2 -38.503
14.6 10.2 -38.536
14.8 10.2 -38.563
15.0 10.2 -38.536
15.2 10.2 -38.5
15.4 10.2 -38.5
15.6 10.2 -38.443
15.8 10.2 -38.38
16.0 10.2 -38.422
16.2 10.2 -38.491
16.4 10.2 -38.542
18.2 10.2 -19.651
18.4 10.2 -19.369
18.6 10.2 -19.123
18.8 10.2 -18.868
19.0 10.2 -18.643
19.2 10.2 -18.382
19.4 10.2 -18.145
19.6 10.2 -17.962
19.8 10.2 -17.761
20.0 10.2 -17.584
20.2 10.2 -17.392
20.4 10.2 -17.227
20.6 10.2 -17.053
20.8 10.2 -16.915
21.0 10.2 -16.738
21.2 10.2 -16.576
21.4 10.2 -16.432
21.6 10.2 -16.276
21.8 10.2 -16.138
22.0 10.2 -16.012
22.2 10.2 -15.886
22.4 10.2 -15.787
22.6 10.2 -15.673
22.8 10.2 -15.553
23.0 10.2 -15.445
23.2 10.2 -15.34
23.4 10.2 -15.262
23.6 10.2 -15.178
23.8 10.2 -15.091
24.0 10.2 -15.013
24.2 10.2 -14.932
24.4 10.2 -14.806
24.6 10.2 -14.746
24.8 10.2 -14.692
25.0 10.2 -14.638
25.2 10.2 -14.581
25.4 10.2 -14.527
25.6 10.2 -14.461
25.8 10.2 -14.377
26.0 10.2 -14.29
26.2 10.2 -14.233
26.4 10.2 -14.179
26.6 10.2 -14.14
26.8 10.2 -14.104
27.0 10.2 -14.05
27.2 10.2 -14.023
27.4 10.2 -14.014
27.6 10.2 -13.996
27.8 10.2 -13.99
28.0 10.2 -14.005
28.2 10.2 -14.014
28.4 10.2 -14.032
28.6 10.2 -14.05
28.8 10.2 -14.059
29.0 10.2 -14.05
29.2 10.2 -14.053
29.4 10.2 -14.062
29.6 10.2 -14.086
29.8 10.2 -14.116
30.0 10.2 -14.146
30.2 10.2 -14.149
30.4 10.2 -14.215
30.6 10.2 -14.272
30.8 10.2 -14.284
31.0 10.2 -14.287
31.2 10.2 -14.32
31.4 10.2 -14.371
31.6 10.2 -14.425
31.8 10.2 -14.473
32.0 10.2 -14.524
32.2 10.2 -14.605
32.4 10.2 -14.677
32.6 10.2 -14.74
32.8 10.2 -14.803
33.0 10.2 -14.884
33.2 10.2 -14.983
33.4 10.2 -15.055
33.6 10.2 -15.142
33.8 10.2 -15.22
34.0 10.2 -15.298
34.2 10.2 -15.409
34.4 10.2 -15.505
34.6 10.2 -15.589
34.8 10.2 -15.694
35.0 10.2 -15.796
35.2 10.2 -15.895
35.4 10.2 -16.036
35.6 10.2 -16.162
35.8 10.2 -16.276
43.8 10.2 -37.669
44.0 10.2 -37.573
44.2 10.2 -37.612
44.4 10.2 -37.612
44.6 10.2 -37.627
44.8 10.2 -37.609
45.0 10.2 -37.585
45.2 10.2 -37.552
45.4 10.2 -37.549
45.6 10.2 -37.48
45.8 10.2 -37.489
46.0 10.2 -37.495
46.2 10.2 -37.438
46.4 10.2 -37.438
46.6 10.2 -37.402
46.8 10.2 -37.528
47.0 10.2 -37.375
47.2 10.2 -37.318
47.4 10.2 -37.462
47.6 10.2 -37.513
47.8 10.2 -37.444
48.0 10.2 -37.414
48.2 10.2 -37.33
6.8 10.4 -38.725
7.0 10.4 -38.695
7.2 10.4 -38.662
7.4 10.4 -38.695
7.6 10.4 -38.713
7.8 10.4 -38.695
8.0 10.4 -38.662
8.2 10.4 -38.689
8.4 10.4 -38.692
8.6 10.4 -38.68
8.8 10.4 -38.659
9.0 10.4 -38.641
9.2 10.4 -38.653
9.4 10.4 -38.641
9.6 10.4 -38.614
9.8 10.4 -38.599
10.0 10.4 -38.608
10.2 10.4 -38.632
10.4 10.4 -38.665
10.6 10.4 -38.656
10.8 10.4 -38.641
11.0 10.4 -38.614
11.2 10.4 -38.572
11.4 10.4 -38.533
11.6 10.4 -38.521
11.8 10.4 -38.536
12.0 10.4 -38.569
12.2 10.4 -38.584
12.4 10.4 -38.56
12.6 10.4 -38.545
12.8 10.4 -38.539
13.0 10.4 -38.533
13.2 10.4 -38.518
13.4 10.4 -38.515
13.6 10.4 -38.503
13.8 10.4 -38.5
14.0 10.4 -38.485
14.2 10.4 -38.455
14.4 10.4 -38.434
14.6 10.4 -38.485
14.8 10.4 -38.482
15.0 10.4 -38.494
15.2 10.4 -38.485
15.4 10.4 -38.431
15.6 10.4 -38.452
15.8 10.4 -38.434
16.0 10.4 -38.464
16.2 10.4 -38.5
16.4 10.4 -38.515
18.2 10.4 -19.702
18.4 10.4 -19.393
18.6 10.4 -19.096
18.8 10.4 -18.862
19.0 10.4 -18.631
19.2 10.4 -18.388
19.4 10.4 -18.145
19.6 10.4 -17.977
19.8 10.4 -17.764
20.0 10.4 -17.578
20.2 10.4 -17.395
20.4 10.4 -17.221
20.6 10.4 -17.068
20.8 10.4 -16.9
21.0 10.4 -16.729
21.2 10.4 -16.567
21.4 10.4 -16.432
21.6 10.4 -16.291
21.8 10.4 -16.147
22.0 10.4 -16.024
22.2 10.4 -15.898
22.4 10.4 -15.775
22.6 10.4 -15.667
22.8 10.4 -15.568
23.0 10.4 -15.457
23.2 10.4 -15.34
23.4 10.4 -15.271
23.6 10.4 -15.172
23.8 10.4 -15.112
24.0 10.4 -15.046
24.2 10.4 -14.935
24.4 10.4 -14.851
24.6 10.4 -14.767
24.8 10.4 -14.707
25.0 10.4 -14.671
25.2 10.4 -14.608
25.4 10.4 -14.515
25.6 10.4 -14.419
25.8 10.4 -14.329
26.0 10.4 -14.266
26.2 10.4 -14.23
26.4 10.4 -14.188
26.6 10.4 -14.155
26.8 10.4 -14.125
27.0 10.4 -14.053
27.2 10.4 -14.035
27.4 10.4 -14.014
27.6 10.4 -13.999
27.8 10.4 -14.008
28.0 10.4 -14.002
28.2 10.4 -13.987
28.4 10.4 -14.008
28.6 10.4 -14.032
28.8 10.4 -14.053
29.0 10.4 -14.059
29.2 10.4 -14.05
29.4 10.4 -14.05
29.6 10.4 -14.083
29.8 10.4 -14.131
30.0 10.4 -14.164
30.2 10.4 -14.188
30.4 10.4 -14.212
30.6 10.4 -14.224
30.8 10.4 -14.26
31.0 10.4 -14.305
31.2 10.4 -14.338
31.4 10.4 -14.377
31.6 10.4 -14.431
31.8 10.4 -14.488
32.0 10.4 -14.515
32.2 10.4 -14.593
32.4 10.4 -14.662
32.6 10.4 -14.731
32.8 10.4 -14.806
33.0 10.4 -14.887
33.2 10.4 -14.986
33.4 10.4 -15.04
33.6 10.4 -15.127
33.8 10.4 -15.22
34.0 10.4 -15.313
34.2 10.4 -15.427
34.4 10.4 -15.523
34.6 10.4 -15.607
34.8 10.4 -15.703
35.0 10.4 -15.808
35.2 10.4 -15.916
35.4 10.4 -16.048
35.6 10.4 -16.177
35.8 10.4 -16.282
43.8 10.4 -37.702
44.0 10.4 -37.588
44.2 10.4 -37.447
44.4 10.4 -37.552
44.6 10.4 -37.615
44.8 10.4 -37.567
45.0 10.4 -37.528
45.2 10.4 -37.501
45.4 10.4 -37.471
45.6 10.4 -37.489
45.8 10.4 -37.534
46.0 10.4 -37.576
46.2 10.4 -37.591
46.4 10.4 -37.39
46.6 10.4 -37.294
46.8 10.4 -37.525
47.0 10.4 -37.42
47.2 10.4 -37.3
47.4 10.4 -37.378
47.6 10.4 -37.531
47.8 10.4 -37.378
48.0 10.4 -37.348
48.2 10.4 -37.288
6.8 10.6 -38.713
7.0 10.6 -38.695
7.2 10.6 -38.677
7.4 10.6 -38.71
7.6 10.6 -38.707
7.8 10.6 -38.68
8.2 10.6 -38.689
8.4 10.6 -38.68
8.6 10.6 -38.656
8.8 10.6 -38.659
9.0 10.6 -38.683
9.2 10.6 -38.653
9.4 10.6 -38.626
9.6 10.6 -38.593
9.8 10.6 -38.584
10.0 10.6 -38.593
10.2 10.6 -38.578
10.4 10.6 -38.563
10.6 10.6 -38.524
10.8 10.6 -38.515
11.0 10.6 -38.548
11.2 10.6 -38.593
11.4 10.6 -38.593
11.6 10.6 -38.593
11.8 10.6 -38.551
12.0 10.6 -38.548
12.2 10.6 -38.581
12.4 10.6 -38.503
12.6 10.6 -38.503
12.8 10.6 -38.503
13.0 10.6 -38.497
13.2 10.6 -38.485
13.4 10.6 -38.464
13.6 10.6 -38.494
13.8 10.6 -38.5
14.0 10.6 -38.494
14.2 10.6 -38.464
14.4 10.6 -38.413
14.6 10.6 -38.413
14.8 10.6 -38.434
15.0 10.6 -38.452
15.2 10.6 -38.455
15.4 10.6 -38.437
15.6 10.6 -38.455
15.8 10.6 -38.479
16.0 10.6 -38.506
16.2 10.6 -38.509
16.4 10.6 -38.488
18.2 10.6 -19.729
18.4 10.6 -19.411
18.6 10.6 -19.084
18.8 10.6 -18.853
19.0 10.6 -18.646
19.2 10.6 -18.415
19.4 10.6 -18.184
19.6 10.6 -17.971
19.8 10.6 -17.743
20.0 10.6 -17.551
20.2 10.6 -17.38
20.4 10.6 -17.23
20.6 10.6 -17.056
20.8 10.6 -16.858
21.0 10.6 -16.711
21.2 10.6 -16.573
21.4 10.6 -16.438
21.6 10.6 -16.303
21.8 10.6 -16.153
22.0 10.6 -16.024
22.2 10.6 -15.889
22.4 10.6 -15.763
22.6 10.6 -15.667
22.8 10.6 -15.583
23.0 10.6 -15.49
23.2 10.6 -15.397
23.4 10.6 -15.286
23.6 10.6 -15.175
23.8 10.6 -15.088
24.0 10.6 -15.049
24.2 10.6 -14.962
24.4 10.6 -14.851
24.6 10.6 -14.779
24.8 10.6 -14.743
25.0 10.6 -14.668
25.2 10.6 -14.566
25.4 10.6 -14.47
25.6 10.6 -14.392
25.8 10.6 -14.326
26.0 10.6 -14.251
26.2 10.6 -14.191
26.4 10.6 -14.17
26.6 10.6 -14.131
26.8 10.6 -14.113
27.0 10.6 -14.074
27.2 10.6 -14.047
27.4 10.6 -14.008
27.6 10.6 -13.993
27.8 10.6 -13.993
28.0 10.6 -13.984
28.2 10.6 -13.975
28.4 10.6 -13.987
28.6 10.6 -14.035
28.8 10.6 -14.047
29.0 10.6 -14.053
29.2 10.6 -14.041
29.4 10.6 -14.053
29.6 10.6 -14.095
29.8 10.6 -14.146
30.0 10.6 -14.188
30.2 10.6 -14.188
30.4 10.6 -14.179
30.6 10.6 -14.245
30.8 10.6 -14.269
31.0 10.6 -14.308
31.2 10.6 -14.35
31.4 10.6 -14.374
31.6 10.6 -14.41
31.8 10.6 -14.473
32.0 10.6 -14.536
32.2 10.6 -14.629
32.4 10.6 -14.689
32.6 10.6 -14.734
32.8 10.6 -14.791
33.0 10.6 -14.866
33.2 10.6 -14.929
33.4 10.6 -15.025
33.6 10.6 -15.124
33.8 10.6 -15.214
34.0 10.6 -15.307
34.2 10.6 -15.424
34.4 10.6 -15.52
34.6 10.6 -15.619
34.8 10.6 -15.703
35.0 10.6 -15.808
35.2 10.6 -15.94
35.4 10.6 -16.072
35.6 10.6 -16.159
35.8 10.6 -16.252
43.8 10.6 -37.702
44.0 10.6 -37.519
44.2 10.6 -37.453
44.4 10.6 -37.429
44.6 10.6 -37.639
44.8 10.6 -37.549
45.0 10.6 -37.462
45.2 10.6 -37.489
45.4 10.6 -37.51
45.6 10.6 -37.579
45.8 10.6 -37.615
46.0 10.6 -37.594
46.2 10.6 -37.507
46.4 10.6 -37.408
46.6 10.6 -37.405
46.8 10.6 -37.564
47.0 10.6 -37.597
47.2 10.6 -37.537
47.4 10.6 -37.42
47.6 10.6 -37.564
47.8 10.6 -37.276
48.0 10.6 -37.219
48.2 10.6 -37.216
6.8 10.8 -38.677
7.0 10.8 -38.68
7.2 10.8 -38.689
7.4 10.8 -38.689
8.8 10.8 -38.692
9.2 10.8 -38.653
9.4 10.8 -38.599
9.6 10.8 -38.56
9.8 10.8 -38.536
10.0 10.8 -38.533
10.2 10.8 -38.557
10.4 10.8 -38.515
10.6 10.8 -38.497
10.8 10.8 -38.482
11.0 10.8 -38.512
11.2 10.8 -38.596
11.4 10.8 -38.584
11.6 10.8 -38.599
11.8 10.8 -38.599
12.0 10.8 -38.584
12.2 10.8 -38.557
12.4 10.8 -38.539
12.6 10.8 -38.524
12.8 10.8 -38.518
13.0 10.8 -38.524
13.2 10.8 -38.524
13.4 10.8 -38.479
13.6 10.8 -38.485
13.8 10.8 -38.503
14.0 10.8 -38.494
14.2 10.8 -38.452
14.4 10.8 -38.413
14.6 10.8 -38.413
14.8 10.8 -38.443
15.0 10.8 -38.449
15.2 10.8 -38.449
15.4 10.8 -38.455
15.6 10.8 -38.455
15.8 10.8 -38.494
16.0 10.8 -38.506
16.2 10.8 -38.479
16.4 10.8 -38.437
18.2 10.8 -19.783
18.4 10.8 -19.426
18.6 10.8 -19.165
18.8 10.8 -18.901
19.0 10.8 -18.631
19.2 10.8 -18.421
19.4 10.8 -18.205
19.6 10.8 -17.977
19.8 10.8 -17.74
20.0 10.8 -17.539
20.2 10.8 -17.365
20.4 10.8 -17.227
20.6 10.8 -17.059
20.8 10.8 -16.861
21.0 10.8 -16.714
21.2 10.8 -16.588
21.4 10.8 -16.45
21.6 10.8 -16.318
21.8 10.8 -16.174
22.0 10.8 -16.051
22.2 10.8 -15.907
22.4 10.8 -15.787
22.6 10.8 -15.697
22.8 10.8 -15.619
23.0 10.8 -15.532
23.2 10.8 -15.421
23.4 10.8 -15.289
23.6 10.8 -15.178
23.8 10.8 -15.094
24.0 10.8 -15.004
24.2 10.8 -14.92
24.4 10.8 -14.872
24.6 10.8 -14.785
24.8 10.8 -14.71
25.0 10.8 -14.629
25.2 10.8 -14.53
25.4 10.8 -14.443
25.6 10.8 -14.38
25.8 10.8 -14.308
26.0 10.8 -14.233
26.2 10.8 -14.206
26.4 10.8 -14.176
26.6 10.8 -14.143
26.8 10.8 -14.131
27.0 10.8 -14.089
27.2 10.8 -14.056
27.4 10.8 -14.026
27.6 10.8 -14.005
27.8 10.8 -13.99
28.0 10.8 -13.984
28.2 10.8 -13.993
28.4 10.8 -13.984
28.6 10.8 -14.014
28.8 10.8 -14.026
29.0 10.8 -14.029
29.2 10.8 -14.053
29.4 10.8 -14.086
29.6 10.8 -14.116
29.8 10.8 -14.146
30.0 10.8 -14.17
30.2 10.8 -14.188
30.4 10.8 -14.194
30.6 10.8 -14.227
30.8 10.8 -14.278
31.0 10.8 -14.323
31.2 10.8 -14.353
31.4 10.8 -14.374
31.6 10.8 -14.416
31.8 10.8 -14.488
32.0 10.8 -14.542
32.2 10.8 -14.629
32.4 10.8 -14.698
32.6 10.8 -14.752
32.8 10.8 -14.806
33.0 10.8 -14.848
33.2 10.8 -14.902
33.4 10.8 -15.019
33.6 10.8 -15.109
33.8 10.8 -15.205
34.0 10.8 -15.295
34.2 10.8 -15.364
34.4 10.8 -15.481
34.6 10.8 -15.589
34.8 10.8 -15.7
35.0 10.8 -15.811
35.2 10.8 -15.934
35.4 10.8 -16.051
35.6 10.8 -16.144
35.8 10.8 -16.222
43.8 10.8 -37.702
44.0 10.8 -37.576
44.2 10.8 -37.543
44.4 10.8 -37.483
45.0 10.8 -37.48
45.2 10.8 -37.597
45.4 10.8 -37.603
45.6 10.8 -37.705
45.8 10.8 -37.771
46.0 10.8 -37.696
46.2 10.8 -37.66
46.4 10.8 -37.714
46.6 10.8 -37.681
46.8 10.8 -37.663
48.0 10.8 -37.282
48.2 10.8 -37.273
6.4 11.0 -38.665
6.6 11.0 -38.641
6.8 11.0 -38.629
7.0 11.0 -38.632
7.2 11.0 -38.665
7.4 11.0 -38.665
9.4 11.0 -38.623
9.6 11.0 -38.587
9.8 11.0 -38.551
10.0 11.0 -38.53
10.2 11.0 -38.545
10.4 11.0 -38.524
10.6 11.0 -38.542
10.8 11.0 -38.542
11.0 11.0 -38.539
11.2 11.0 -38.566
11.4 11.0 -38.575
11.6 11.0 -38.584
11.8 11.0 -38.593
12.0 11.0 -38.596
12.2 11.0 -38.596
12.4 11.0 -38.572
12.6 11.0 -38.557
12.8 11.0 -38.533
13.0 11.0 -38.527
13.2 11.0 -38.545
13.4 11.0 -38.569
13.6 11.0 -38.527
13.8 11.0 -38.527
14.0 11.0 -38.494
14.2 11.0 -38.446
14.4 11.0 -38.431
14.6 11.0 -38.452
14.8 11.0 -38.488
15.0 11.0 -38.47
15.2 11.0 -38.449
15.4 11.0 -38.473
15.6 11.0 -38.497
15.8 11.0 -38.479
16.0 11.0 -38.44
16.2 11.0 -38.419
16.4 11.0 -38.41
18.2 11.0 -19.75
18.4 11.0 -19.447
18.6 11.0 -19.111
18.8 11.0 -18.835
19.0 11.0 -18.64
19.2 11.0 -18.409
19.4 11.0 -18.193
19.6 11.0 -17.971
19.8 11.0 -17.752
20.0 11.0 -17.548
20.2 11.0 -17.383
20.4 11.0 -17.23
20.6 11.0 -17.071
20.8 11.0 -16.882
21.0 11.0 -16.726
21.2 11.0 -16.588
21.4 11.0 -16.438
21.6 11.0 -16.321
21.8 11.0 -16.189
22.0 11.0 -16.063
22.2 11.0 -15.949
22.4 11.0 -15.832
22.6 11.0 -15.721
22.8 11.0 -15.628
23.0 11.0 -15.532
23.2 11.0 -15.418
23.4 11.0 -15.292
23.6 11.0 -15.208
23.8 11.0 -15.109
24.0 11.0 -15.016
24.2 11.0 -14.947
24.4 11.0 -14.875
24.6 11.0 -14.797
24.8 11.0 -14.701
25.0 11.0 -14.614
25.2 11.0 -14.527
25.4 11.0 -14.452
25.6 11.0 -14.389
25.8 11.0 -14.32
26.0 11.0 -14.26
26.2 11.0 -14.254
26.4 11.0 -14.227
26.6 11.0 -14.191
26.8 11.0 -14.14
27.0 11.0 -14.101
27.2 11.0 -14.083
27.4 11.0 -14.047
27.6 11.0 -14.023
27.8 11.0 -14.014
28.0 11.0 -14.014
28.2 11.0 -14.026
28.4 11.0 -14.02
28.6 11.0 -14.008
28.8 11.0 -14.017
29.0 11.0 -14.038
29.2 11.0 -14.077
29.4 11.0 -14.113
29.6 11.0 -14.128
29.8 11.0 -14.131
30.0 11.0 -14.143
30.2 11.0 -14.185
30.4 11.0 -14.221
30.6 11.0 -14.227
30.8 11.0 -14.263
31.0 11.0 -14.296
31.2 11.0 -14.329
31.4 11.0 -14.38
31.6 11.0 -14.449
31.8 11.0 -14.503
32.0 11.0 -14.563
32.2 11.0 -14.617
32.4 11.0 -14.662
32.6 11.0 -14.722
32.8 11.0 -14.8
33.0 11.0 -14.869
33.2 11.0 -14.944
33.4 11.0 -15.04
33.6 11.0 -15.112
33.8 11.0 -15.199
34.0 11.0 -15.295
34.2 11.0 -15.388
34.4 11.0 -15.484
34.6 11.0 -15.607
34.8 11.0 -15.706
35.0 11.0 -15.814
35.2 11.0 -15.943
35.4 11.0 -16.036
35.6 11.0 -16.114
35.8 11.0 -16.189
48.2 11.0 -37.417
6.4 11.2 -38.632
6.6 11.2 -38.617
6.8 11.2 -38.629
7.0 11.2 -38.65
7.2 11.2 -38.656
7.4 11.2 -38.653
7.6 11.2 -38.638
7.8 11.2 -38.62
8.0 11.2 -38.614
8.2 11.2 -38.623
8.4 11.2 -38.629
8.6 11.2 -38.638
9.4 11.2 -38.614
9.6 11.2 -38.59
9.8 11.2 -38.572
10.0 11.2 -38.563
10.2 11.2 -38.554
10.4 11.2 -38.563
10.6 11.2 -38.572
10.8 11.2 -38.572
11.0 11.2 -38.56
11.2 11.2 -38.545
11.4 11.2 -38.56
11.6 11.2 -38.563
11.8 11.2 -38.572
12.0 11.2 -38.584
12.2 11.2 -38.581
12.4 11.2 -38.566
12.6 11.2 -38.56
12.8 11.2 -38.536
13.0 11.2 -38.53
13.2 11.2 -38.554
13.4 11.2 -38.578
13.6 11.2 -38.533
13.8 11.2 -38.521
14.0 11.2 -38.494
14.2 11.2 -38.476
14.4 11.2 -38.485
14.6 11.2 -38.488
14.8 11.2 -38.503
15.0 11.2 -38.497
15.2 11.2 -38.479
15.4 11.2 -38.479
15.6 11.2 -38.485
15.8 11.2 -38.482
16.0 11.2 -38.437
16.2 11.2 -38.413
16.4 11.2 -38.428
18.2 11.2 -19.708
18.4 11.2 -19.474
18.6 11.2 -19.195
18.8 11.2 -18.916
19.0 11.2 -18.685
19.2 11.2 -18.427
19.4 11.2 -18.193
19.6 11.2 -17.977
19.8 11.2 -17.782
20.0 11.2 -17.575
20.2 11.2 -17.407
20.4 11.2 -17.236
20.6 11.2 -17.086
20.8 11.2 -16.888
21.0 11.2 -16.732
21.2 11.2 -16.579
21.4 11.2 -16.444
21.6 11.2 -16.306
21.8 11.2 -16.189
22.0 11.2 -16.066
22.2 11.2 -15.961
22.4 11.2 -15.853
22.6 11.2 -15.736
22.8 11.2 -15.625
23.0 11.2 -15.517
23.2 11.2 -15.406
23.4 11.2 -15.292
23.6 11.2 -15.181
23.8 11.2 -15.085
24.0 11.2 -15.016
24.2 11.2 -14.932
24.4 11.2 -14.887
24.6 11.2 -14.8
24.8 11.2 -14.686
25.0 11.2 -14.608
25.2 11.2 -14.551
25.4 11.2 -14.488
25.6 11.2 -14.425
25.8 11.2 -14.362
26.0 11.2 -14.311
26.2 11.2 -14.311
26.4 11.2 -14.278
26.6 11.2 -14.239
26.8 11.2 -14.17
27.0 11.2 -14.113
27.2 11.2 -14.095
27.4 11.2 -14.065
27.6 11.2 -14.059
27.8 11.2 -14.053
28.0 11.2 -14.041
28.2 11.2 -14.065
28.4 11.2 -14.062
28.6 11.2 -14.005
28.8 11.2 -14.026
29.0 11.2 -14.071
29.2 11.2 -14.107
29.4 11.2 -14.128
29.6 11.2 -14.134
29.8 11.2 -14.128
30.0 11.2 -14.125
30.2 11.2 -14.173
30.4 11.2 -14.227
30.6 11.2 -14.251
30.8 11.2 -14.284
31.0 11.2 -14.308
31.2 11.2 -14.35
31.4 11.2 -14.413
31.6 11.2 -14.461
31.8 11.2 -14.533
32.0 11.2 -14.56
32.2 11.2 -14.614
32.4 11.2 -14.689
32.6 11.2 -14.758
32.8 11.2 -14.818
33.0 11.2 -14.893
33.2 11.2 -14.944
33.4 11.2 -15.04
33.6 11.2 -15.115
33.8 11.2 -15.196
34.0 11.2 -15.292
34.2 11.2 -15.388
34.4 11.2 -15.475
34.6 11.2 -15.592
34.8 11.2 -15.691
35.0 11.2 -15.808
35.2 11.2 -15.937
35.4 11.2 -16.012
35.6 11.2 -16.06
35.8 11.2 -16.138
6.4 11.4 -38.683
6.6 11.4 -38.683
6.8 11.4 -38.68
7.0 11.4 -38.701
7.2 11.4 -38.692
7.4 11.4 -38.671
7.6 11.4 -38.632
7.8 11.4 -38.599
8.0 11.4 -38.596
8.2 11.4 -38.623
8.4 11.4 -38.626
8.6 11.4 -38.629
8.8 11.4 -38.635
9.0 11.4 -38.626
9.2 11.4 -38.617
9.4 11.4 -38.608
9.6 11.4 -38.596
9.8 11.4 -38.578
10.0 11.4 -38.575
10.2 11.4 -38.596
10.4 11.4 -38.62
10.6 11.4 -38.602
10.8 11.4 -38.599
11.0 11.4 -38.602
11.2 11.4 -38.575
11.4 11.4 -38.578
11.6 11.4 -38.557
11.8 11.4 -38.554
12.0 11.4 -38.563
12.2 11.4 -38.563
12.4 11.4 -38.56
12.6 11.4 -38.539
12.8 11.4 -38.542
13.0 11.4 -38.557
13.2 11.4 -38.563
13.4 11.4 -38.551
13.6 11.4 -38.542
13.8 11.4 -38.524
14.0 11.4 -38.518
14.2 11.4 -38.527
14.4 11.4 -38.536
14.6 11.4 -38.569
14.8 11.4 -38.563
15.0 11.4 -38.536
15.2 11.4 -38.509
15.4 11.4 -38.5
15.6 11.4 -38.491
15.8 11.4 -38.491
16.0 11.4 -38.455
16.2 11.4 -38.416
16.4 11.4 -38.395
18.2 11.4 -19.717
18.4 11.4 -19.447
18.6 11.4 -19.18
18.8 11.4 -18.943
19.0 11.4 -18.682
19.2 11.4 -18.463
19.4 11.4 -18.253
19.6 11.4 -18.022
19.8 11.4 -17.83
20.0 11.4 -17.62
20.2 11.4 -17.428
20.4 11.4 -17.239
20.6 11.4 -17.068
20.8 11.4 -16.879
21.0 11.4 -16.756
21.2 11.4 -16.621
21.4 11.4 -16.468
21.6 11.4 -16.318
21.8 11.4 -16.177
22.0 11.4 -16.06
22.2 11.4 -15.949
22.4 11.4 -15.832
22.6 11.4 -15.712
22.8 11.4 -15.592
23.0 11.4 -15.478
23.2 11.4 -15.385
23.4 11.4 -15.298
23.6 11.4 -15.178
23.8 11.4 -15.082
24.0 11.4 -14.986
24.2 11.4 -14.914
24.4 11.4 -14.884
24.6 11.4 -14.836
24.8 11.4 -14.74
25.0 11.4 -14.647
25.2 11.4 -14.569
25.4 11.4 -14.509
25.6 11.4 -14.467
25.8 11.4 -14.431
26.0 11.4 -14.386
26.2 11.4 -14.359
26.4 11.4 -14.302
26.6 11.4 -14.239
26.8 11.4 -14.194
27.0 11.4 -14.113
27.2 11.4 -14.086
27.4 11.4 -14.086
27.6 11.4 -14.101
27.8 11.4 -14.095
28.0 11.4 -14.062
28.2 11.4 -14.068
28.4 11.4 -14.059
28.6 11.4 -14.029
28.8 11.4 -14.08
29.0 11.4 -14.104
29.2 11.4 -14.113
29.4 11.4 -14.113
29.6 11.4 -14.128
29.8 11.4 -14.14
30.0 11.4 -14.14
30.2 11.4 -14.164
30.4 11.4 -14.215
30.6 11.4 -14.266
30.8 11.4 -14.311
31.0 11.4 -14.35
31.2 11.4 -14.386
31.4 11.4 -14.44
31.6 11.4 -14.509
31.8 11.4 -14.563
32.0 11.4 -14.611
32.2 11.4 -14.641
32.4 11.4 -14.701
32.6 11.4 -14.767
32.8 11.4 -14.821
33.0 11.4 -14.908
33.2 11.4 -14.977
33.4 11.4 -15.067
33.6 11.4 -15.16
33.8 11.4 -15.232
34.0 11.4 -15.295
34.2 11.4 -15.4
34.4 11.4 -15.463
34.6 11.4 -15.577
34.8 11.4 -15.694
35.0 11.4 -15.823
35.2 11.4 -15.946
35.4 11.4 -16.018
35.6 11.4 -16.06
35.8 11.4 -16.15
36.0 11.4 -16.294
43.8 11.4 -37.792
45.2 11.4 -37.627
5.8 11.6 -38.689
6.0 11.6 -38.71
6.2 11.6 -38.671
6.4 11.6 -38.68
7.4 11.6 -38.701
7.6 11.6 -38.65
7.8 11.6 -38.614
8.0 11.6 -38.626
8.2 11.6 -38.659
8.4 11.6 -38.668
8.6 11.6 -38.665
8.8 11.6 -38.638
9.0 11.6 -38.608
9.2 11.6 -38.605
9.4 11.6 -38.605
9.6 11.6 -38.605
9.8 11.6 -38.599
10.0 11.6 -38.599
10.2 11.6 -38.623
10.4 11.6 -38.623
10.6 11.6 -38.605
10.8 11.6 -38.614
11.0 11.6 -38.638
11.2 11.6 -38.641
11.4 11.6 -38.617
11.6 11.6 -38.575
11.8 11.6 -38.545
12.0 11.6 -38.536
12.2 11.6 -38.545
12.4 11.6 -38.554
12.6 11.6 -38.545
12.8 11.6 -38.548
13.0 11.6 -38.542
13.2 11.6 -38.527
13.4 11.6 -38.524
13.6 11.6 -38.491
13.8 11.6 -38.482
14.0 11.6 -38.509
14.2 11.6 -38.542
14.4 11.6 -38.554
14.6 11.6 -38.611
14.8 11.6 -38.608
15.0 11.6 -38.575
15.2 11.6 -38.545
15.4 11.6 -38.542
15.6 11.6 -38.527
15.8 11.6 -38.5
16.0 11.6 -38.455
16.2 11.6 -38.419
16.4 11.6 -38.398
18.2 11.6 -19.741
18.4 11.6 -19.411
18.6 11.6 -19.177
18.8 11.6 -18.955
19.0 11.6 -18.682
19.2 11.6 -18.469
19.4 11.6 -18.283
19.6 11.6 -18.064
19.8 11.6 -17.863
20.0 11.6 -17.644
20.2 11.6 -17.452
20.4 11.6 -17.263
20.6 11.6 -17.047
20.8 11.6 -16.888
21.0 11.6 -16.768
21.2 11.6 -16.645
21.4 11.6 -16.477
21.6 11.6 -16.327
21.8 11.6 -16.18
22.0 11.6 -16.066
22.2 11.6 -15.958
22.4 11.6 -15.844
22.6 11.6 -15.709
22.8 11.6 -15.586
23.0 11.6 -15.49
23.2 11.6 -15.388
23.4 11.6 -15.322
23.6 11.6 -15.214
23.8 11.6 -15.115
24.0 11.6 -15.016
24.2 11.6 -14.92
24.4 11.6 -14.884
24.6 11.6 -14.824
24.8 11.6 -14.764
25.0 11.6 -14.665
25.2 11.6 -14.599
25.4 11.6 -14.56
25.6 11.6 -14.524
25.8 11.6 -14.494
26.0 11.6 -14.434
26.2 11.6 -14.374
26.4 11.6 -14.296
26.6 11.6 -14.248
26.8 11.6 -14.197
27.0 11.6 -14.125
27.2 11.6 -14.104
27.4 11.6 -14.107
27.6 11.6 -14.119
27.8 11.6 -14.113
28.0 11.6 -14.077
28.2 11.6 -14.044
28.4 11.6 -14.05
28.6 11.6 -14.068
28.8 11.6 -14.101
29.0 11.6 -14.113
29.2 11.6 -14.122
29.4 11.6 -14.14
29.6 11.6 -14.155
29.8 11.6 -14.164
30.0 11.6 -14.179
30.2 11.6 -14.182
30.4 11.6 -14.215
30.6 11.6 -14.284
30.8 11.6 -14.338
31.0 11.6 -14.374
31.2 11.6 -14.413
31.4 11.6 -14.467
31.6 11.6 -14.509
31.8 11.6 -14.584
32.0 11.6 -14.635
32.2 11.6 -14.665
32.4 11.6 -14.701
32.6 11.6 -14.764
32.8 11.6 -14.848
33.0 11.6 -14.923
33.2 11.6 -15.013
33.4 11.6 -15.118
33.6 11.6 -15.193
33.8 11.6 -15.268
34.0 11.6 -15.352
34.2 11.6 -15.418
34.4 11.6 -15.49
34.6 11.6 -15.613
34.8 11.6 -15.736
35.0 11.6 -15.847
35.2 11.6 -15.949
35.4 11.6 -16.054
35.6 11.6 -16.111
35.8 11.6 -16.252
36.0 11.6 -16.441
43.8 11.6 -37.795
5.6 11.8 -38.671
5.8 11.8 -38.665
6.0 11.8 -38.668
6.2 11.8 -38.65
6.4 11.8 -38.677
7.8 11.8 -38.647
8.0 11.8 -38.671
8.2 11.8 -38.692
8.4 11.8 -38.701
8.6 11.8 -38.692
8.8 11.8 -38.662
9.0 11.8 -38.632
9.2 11.8 -38.623
9.4 11.8 -38.611
9.6 11.8 -38.614
9.8 11.8 -38.626
10.0 11.8 -38.632
10.2 11.8 -38.632
10.4 11.8 -38.62
10.6 11.8 -38.608
10.8 11.8 -38.608
11.0 11.8 -38.611
11.2 11.8 -38.62
11.4 11.8 -38.587
11.6 11.8 -38.578
11.8 11.8 -38.533
12.0 11.8 -38.5
12.2 11.8 -38.518
12.4 11.8 -38.557
12.6 11.8 -38.554
12.8 11.8 -38.542
13.0 11.8 -38.512
13.2 11.8 -38.491
13.4 11.8 -38.518
13.6 11.8 -38.428
13.8 11.8 -38.452
14.0 11.8 -38.494
14.2 11.8 -38.533
14.4 11.8 -38.545
14.6 11.8 -38.596
14.8 11.8 -38.584
15.0 11.8 -38.566
15.2 11.8 -38.56
15.4 11.8 -38.557
15.6 11.8 -38.539
15.8 11.8 -38.479
16.0 11.8 -38.434
16.2 11.8 -38.413
16.4 11.8 -38.422
18.2 11.8 -19.711
18.4 11.8 -19.471
18.6 11.8 -19.243
18.8 11.8 -18.976
19.0 11.8 -18.724
19.2 11.8 -18.508
19.4 11.8 -18.292
19.6 11.8 -18.076
19.8 11.8 -17.884
20.0 11.8 -17.65
20.2 11.8 -17.473
20.4 11.8 -17.269
20.6 11.8 -17.092
20.8 11.8 -16.939
21.0 11.8 -16.81
21.2 11.8 -16.657
21.4 11.8 -16.486
21.6 11.8 -16.354
21.8 11.8 -16.207
22.0 11.8 -16.078
22.2 11.8 -15.97
22.4 11.8 -15.853
22.6 11.8 -15.733
22.8 11.8 -15.619
23.0 11.8 -15.52
23.2 11.8 -15.439
23.4 11.8 -15.343
23.6 11.8 -15.253
23.8 11.8 -15.16
24.0 11.8 -15.049
24.2 11.8 -14.953
24.4 11.8 -14.89
24.6 11.8 -14.839
24.8 11.8 -14.752
25.0 11.8 -14.686
25.2 11.8 -14.641
25.4 11.8 -14.599
25.6 11.8 -14.56
25.8 11.8 -14.509
26.0 11.8 -14.428
26.2 11.8 -14.368
26.4 11.8 -14.314
26.6 11.8 -14.278
26.8 11.8 -14.236
27.0 11.8 -14.197
27.2 11.8 -14.179
27.4 11.8 -14.149
27.6 11.8 -14.137
27.8 11.8 -14.125
28.0 11.8 -14.095
28.2 11.8 -14.08
28.4 11.8 -14.098
28.6 11.8 -14.113
28.8 11.8 -14.116
29.0 11.8 -14.125
29.2 11.8 -14.152
29.4 11.8 -14.185
29.6 11.8 -14.206
29.8 11.8 -14.212
30.0 11.8 -14.227
30.2 11.8 -14.224
30.4 11.8 -14.248
30.6 11.8 -14.314
30.8 11.8 -14.365
31.0 11.8 -14.395
31.2 11.8 -14.434
31.4 11.8 -14.479
31.6 11.8 -14.515
31.8 11.8 -14.581
32.0 11.8 -14.635
32.2 11.8 -14.671
32.4 11.8 -14.725
32.6 11.8 -14.8
32.8 11.8 -14.869
33.0 11.8 -14.923
33.2 11.8 -15.013
33.4 11.8 -15.106
33.6 11.8 -15.181
33.8 11.8 -15.247
34.0 11.8 -15.325
34.2 11.8 -15.433
34.4 11.8 -15.502
34.6 11.8 -15.646
34.8 11.8 -15.76
35.0 11.8 -15.865
35.2 11.8 -15.976
35.4 11.8 -16.096
35.6 11.8 -16.204
35.8 11.8 -16.345
36.0 11.8 -16.519
36.2 11.8 -16.624
43.8 11.8 -37.771
5.4 12.0 -38.674
5.6 12.0 -38.647
5.8 12.0 -38.653
6.0 12.0 -38.638
6.2 12.0 -38.659
6.4 12.0 -38.68
6.6 12.0 -38.698
7.8 12.0 -38.674
8.0 12.0 -38.689
8.2 12.0 -38.71
8.4 12.0 -38.707
8.6 12.0 -38.695
8.8 12.0 -38.674
9.0 12.0 -38.659
9.2 12.0 -38.638
9.4 12.0 -38.644
9.6 12.0 -38.644
9.8 12.0 -38.65
10.0 12.0 -38.656
10.2 12.0 -38.65
10.4 12.0 -38.647
10.6 12.0 -38.623
10.8 12.0 -38.596
11.0 12.0 -38.578
11.2 12.0 -38.584
11.4 12.0 -38.569
11.6 12.0 -38.575
11.8 12.0 -38.542
12.0 12.0 -38.512
12.2 12.0 -38.521
12.4 12.0 -38.548
12.6 12.0 -38.542
12.8 12.0 -38.539
13.0 12.0 -38.53
13.2 12.0 -38.524
13.4 12.0 -38.542
13.6 12.0 -38.47
13.8 12.0 -38.464
14.0 12.0 -38.485
14.2 12.0 -38.521
14.4 12.0 -38.539
14.6 12.0 -38.563
14.8 12.0 -38.533
15.0 12.0 -38.524
15.2 12.0 -38.53
15.4 12.0 -38.536
15.6 12.0 -38.515
15.8 12.0 -38.461
16.0 12.0 -38.449
16.2 12.0 -38.431
16.4 12.0 -38.416
18.2 12.0 -19.765
18.4 12.0 -19.537
18.6 12.0 -19.252
18.8 12.0 -18.997
19.0 12.0 -18.754
19.2 12.0 -18.532
19.4 12.0 -18.322
19.6 12.0 -18.091
19.8 12.0 -17.896
20.0 12.0 -17.68
20.2 12.0 -17.503
20.4 12.0 -17.293
20.6 12.0 -17.128
20.8 12.0 -16.981
21.0 12.0 -16.834
21.2 12.0 -16.684
21.4 12.0 -16.522
21.6 12.0 -16.39
21.8 12.0 -16.252
22.0 12.0 -16.12
22.2 12.0 -16.003
22.4 12.0 -15.883
22.6 12.0 -15.748
22.8 12.0 -15.634
23.0 12.0 -15.55
23.2 12.0 -15.448
23.4 12.0 -15.346
23.6 12.0 -15.289
23.8 12.0 -15.217
24.0 12.0 -15.088
24.2 12.0 -15.001
24.4 12.0 -14.917
24.6 12.0 -14.86
24.8 12.0 -14.788
25.0 12.0 -14.725
25.2 12.0 -14.662
25.4 12.0 -14.617
25.6 12.0 -14.584
25.8 12.0 -14.527
26.0 12.0 -14.47
26.2 12.0 -14.398
26.4 12.0 -14.356
26.6 12.0 -14.323
26.8 12.0 -14.281
27.0 12.0 -14.263
27.2 12.0 -14.212
27.4 12.0 -14.167
27.6 12.0 -14.146
27.8 12.0 -14.14
28.0 12.0 -14.146
28.2 12.0 -14.164
28.4 12.0 -14.161
28.6 12.0 -14.161
28.8 12.0 -14.155
29.0 12.0 -14.158
29.2 12.0 -14.173
29.4 12.0 -14.2
29.6 12.0 -14.221
29.8 12.0 -14.239
30.0 12.0 -14.26
30.2 12.0 -14.284
30.4 12.0 -14.302
30.6 12.0 -14.335
30.8 12.0 -14.368
31.0 12.0 -14.404
31.2 12.0 -14.437
31.4 12.0 -14.479
31.6 12.0 -14.542
31.8 12.0 -14.581
32.0 12.0 -14.65
32.2 12.0 -14.71
32.4 12.0 -14.767
32.6 12.0 -14.821
32.8 12.0 -14.884
33.0 12.0 -14.941
33.2 12.0 -15.025
33.4 12.0 -15.121
33.6 12.0 -15.196
33.8 12.0 -15.277
34.0 12.0 -15.379
34.2 12.0 -15.484
34.4 12.0 -15.586
34.6 12.0 -15.661
34.8 12.0 -15.787
35.0 12.0 -15.919
35.2 12.0 -16.033
35.4 12.0 -16.159
35.6 12.0 -16.261
35.8 12.0 -16.372
36.0 12.0 -16.525
36.2 12.0 -16.684
43.8 12.0 -37.681
6.0 12.2 -38.674
6.2 12.2 -38.686
6.4 12.2 -38.68
6.6 12.2 -38.695
6.8 12.2 -38.722
7.0 12.2 -38.725
